0.164443 0.283266 0.053577 0.677392 0.715712 -0.148498 
0.231638 0.358918 -0.084817 0.778188 -0.347806 0.515244 
-0.248080 0.109553 0.666829 -0.737043 0.667243 0.096724 
-0.233811 -0.429759 0.256306 -0.156700 -0.954388 0.210464 
0.178271 0.117891 0.824530 0.531123 0.700080 0.474820 
0.062869 0.773784 -0.434536 0.111423 0.669924 -0.721750 
0.286893 -0.224599 0.867621 0.769869 0.114795 0.622609 
-0.349392 -0.014854 0.372244 -0.924509 0.361136 0.111225 
0.290922 0.101640 0.355803 0.840318 0.514136 0.169564 
0.176372 0.226706 0.397158 0.544188 0.742963 0.380008 
-0.298406 -0.617126 0.877199 -0.746662 -0.307812 0.570711 
0.236679 -0.436503 0.452613 0.463314 -0.882035 0.031112 
-0.289217 0.618762 -0.135797 -0.217167 -0.029425 0.946273 
-0.345960 -0.255423 -0.067884 -0.779700 0.118722 -0.589850 
0.116773 0.893134 -0.251071 -0.861543 0.462595 0.145543 
0.114680 0.048427 -0.188650 0.649962 -0.037686 -0.756794 
-0.297350 0.121353 0.260235 -0.874313 0.469607 0.121309 
0.300100 -0.107846 -0.082403 0.726155 0.153815 -0.655111 
0.052857 -0.493534 0.574456 0.129213 -0.921483 0.364642 
0.353240 -0.074654 0.565003 0.978292 0.188809 0.046293 
0.114018 -0.687794 0.836897 -0.716855 -0.588067 0.335968 
-0.178276 0.226355 -0.116745 -0.911348 -0.329069 0.212221 
-0.183371 0.170870 0.617402 -0.564295 0.822222 0.049747 
-0.216650 0.537912 -0.072616 -0.749482 0.326296 0.555514 
-0.172174 0.286735 0.274806 -0.483164 0.835797 0.229948 
-0.290364 0.100724 0.361734 -0.838458 0.517269 0.169299 
-0.109427 -0.678754 0.746497 0.785752 -0.501329 -0.330176 
-0.216263 0.158729 -0.014512 -0.739062 0.465678 -0.484621 
-0.179248 0.169998 0.671816 -0.557086 0.821817 0.100895 
-0.112026 -0.077016 -0.194274 -0.392837 0.012684 -0.913977 
-0.238404 0.168437 -0.362733 -0.591986 -0.749582 0.289706 
-0.300373 0.061675 0.018643 -0.808788 0.446643 -0.380749 
-0.237025 -0.434905 0.497737 -0.326736 -0.943993 0.007111 
0.173241 -0.565548 0.164265 -0.534728 -0.112653 0.814251 
-0.112982 0.058311 -0.190676 -0.661511 -0.072729 -0.741020 
-0.042009 -0.492864 0.289713 -0.110014 -0.922467 -0.369101 
0.353888 -0.143682 0.640211 0.993940 -0.006460 0.106999 
0.237322 0.497076 -0.075737 0.844005 0.235208 0.480631 
0.038434 0.611701 -0.517985 0.030928 0.379752 -0.924190 
0.057221 -0.437953 0.817713 -0.895326 -0.315553 0.193688 
-0.295543 0.067837 0.458310 -0.828625 0.551203 0.094147 
-0.289932 -0.145316 0.852991 -0.812350 0.027023 0.574368 
-0.298120 0.343488 -0.242300 -0.925838 -0.192507 0.292533 
0.236880 -0.435071 0.378588 0.506419 -0.853694 -0.080157 
-0.309806 0.638399 -0.319924 -0.342896 -0.604025 -0.702527 
0.229836 0.293214 -0.141241 0.767102 -0.473919 0.431552 
-0.142917 0.193843 0.645054 -0.437946 0.896478 0.057904 
-0.106166 -0.055115 0.977900 -0.464837 -0.157126 0.862891 
0.166240 -0.493830 0.401982 0.423026 -0.891052 -0.109719 
0.276038 0.345290 -0.606389 0.652621 0.325166 -0.670099 
-0.020753 0.773430 -0.439339 -0.041981 0.646862 -0.749253 
0.112337 -0.684136 0.746162 -0.765953 -0.533440 -0.333621 
0.353796 -0.165968 -0.017796 0.920694 0.172322 -0.343360 
-0.097764 0.528400 -0.549404 -0.084863 0.438588 -0.892549 
-0.183909 0.504279 -0.012143 -0.633635 0.310985 0.701210 
-0.296648 -0.290351 0.874144 -0.733459 0.159338 0.652007 
-0.282111 -0.018614 -0.072165 -0.708153 0.312470 -0.625754 
-0.171935 0.159175 0.748664 -0.533132 0.801121 0.266812 
0.271485 -0.005571 -0.077750 0.673394 0.350415 -0.648992 
-0.200407 -0.735658 0.789519 -0.047796 -0.989443 0.018584 
0.012094 0.831688 -0.329294 0.041899 0.987101 -0.130225 
-0.183081 0.778260 -0.337350 -0.650490 0.742312 -0.147920 
0.291877 -0.013936 0.811413 0.829787 0.375757 0.409079 
0.294739 -0.624354 0.878115 0.729128 -0.335259 0.581588 
-0.357574 -0.190573 -0.022322 -0.923501 0.163740 -0.342903 
-0.117323 -0.614170 0.692585 0.706718 -0.234891 -0.655171 
0.123353 0.776335 -0.181946 0.304193 0.614899 0.724457 
-0.059616 -0.433517 0.833922 0.888298 -0.293385 0.281814 
-0.036943 -0.436110 0.083618 -0.118846 -0.960452 -0.243883 
-0.104665 0.119709 0.876555 -0.312469 0.690534 0.650182 
0.181441 0.174937 -0.061778 0.882900 0.238377 -0.362387 
-0.037091 -0.470071 0.233657 -0.100970 -0.932414 -0.344884 
0.364875 -0.614015 0.046311 0.933516 -0.307179 0.124569 
-0.080436 -0.504595 0.337481 -0.192040 -0.929473 -0.307864 
0.329225 -0.650199 0.102425 0.751307 -0.468914 0.429969 
0.301580 -0.494029 0.895287 0.659236 -0.012380 0.724838 
0.304755 -0.427735 0.208825 0.497002 -0.544144 0.655786 
0.055863 0.207161 0.740997 0.170879 0.945463 0.262334 
0.262944 -0.513246 0.643906 0.403782 -0.249691 -0.873802 
-0.260974 -0.383142 0.910219 -0.366135 0.079904 0.920705 
-0.237460 0.724324 -0.346829 -0.599992 0.678630 -0.378971 
0.300444 0.056847 0.484263 0.835630 0.542575 0.068761 
0.329518 -0.314800 0.818511 0.945720 0.137008 0.282535 
0.174336 -0.478777 0.352331 0.442054 -0.855338 -0.264731 
0.221894 0.462826 -0.040065 0.783155 0.117711 0.590349 
-0.304423 -0.563262 0.693544 -0.790222 -0.200732 -0.549080 
-0.326519 -0.037469 -0.016386 -0.859168 0.241969 -0.439446 
0.112259 -0.487342 0.558209 0.280746 -0.889229 0.359379 
-0.303414 0.340045 -0.570665 -0.838638 0.273793 -0.447702 
0.328525 -0.379455 0.521153 0.815845 -0.555777 0.053016 
0.243398 0.056293 0.819716 0.702956 0.554597 0.440978 
-0.224753 0.083303 -0.067005 -0.676050 0.421596 -0.602191 
-0.115012 -0.492535 0.541676 -0.280028 -0.901907 0.325469 
-0.284587 0.180563 -0.491723 -0.710564 -0.690161 -0.059753 
0.291898 0.279858 -0.602024 0.736766 -0.098659 -0.634915 
-0.343203 -0.262440 0.680721 -0.994325 -0.023323 0.097644 
-0.177334 -0.254307 0.932096 -0.243188 -0.109986 0.962058 
-0.238862 -0.718778 0.742145 -0.392545 -0.849109 -0.300539 
-0.287154 0.430106 -0.191969 -0.957414 0.097654 0.250054 
-0.241653 0.121374 0.608194 -0.717645 0.693443 0.047615 
0.081216 0.004104 -0.210598 0.473415 -0.050439 -0.875670 
-0.342060 -0.314838 0.651776 -0.992807 -0.108382 0.038743 
0.030361 0.531274 0.043617 0.123479 0.320213 0.922474 
0.340105 -0.343881 0.777692 0.993918 0.062470 0.078295 
-0.167476 0.340086 -0.019718 -0.652626 -0.288208 0.691276 
0.278389 -0.465167 0.636173 0.546440 -0.412391 -0.660270 
-0.268633 0.306127 -0.202621 -0.824056 -0.408897 0.381954 
-0.353647 0.747953 -0.192774 -0.035033 0.839132 0.504511 
-0.311056 0.371466 -0.518078 -0.900098 0.316137 -0.269071 
0.086105 -0.470869 0.615303 0.197447 -0.923111 0.327454 
0.360223 -0.011859 0.271870 0.932813 0.346530 0.085320 
-0.008076 -0.009403 0.996442 -0.039407 0.634742 0.768653 
0.354651 -0.265319 0.558462 0.991654 -0.087556 0.093334 
0.189807 -0.615024 0.167869 -0.410396 -0.228201 0.873027 
0.113446 -0.450017 -0.049303 -0.819990 -0.088996 -0.487938 
-0.137050 0.441898 -0.597469 -0.115319 0.570698 -0.812836 
0.175154 -0.704598 -0.034469 -0.443320 -0.759640 -0.456322 
0.303993 0.741307 -0.301007 0.037667 0.838075 -0.535618 
0.153185 -0.711499 0.727983 -0.435049 -0.767851 -0.427914 
-0.355051 -0.070470 0.038229 -0.939827 0.155340 -0.295627 
0.142884 -0.668976 0.695665 -0.554581 -0.442649 -0.674896 
0.270952 -0.561125 0.660443 0.510146 -0.224800 -0.803268 
-0.168282 -0.077265 -0.170012 -0.449767 0.091889 -0.887014 
0.078323 0.309331 0.277635 0.072392 0.970124 0.222525 
0.288604 -0.169302 0.856718 0.805560 0.038616 0.585380 
-0.007873 -0.368359 -0.048153 -0.054831 -0.782840 -0.613422 
0.181487 -0.443235 0.199788 -0.223317 -0.857957 0.333550 
-0.378557 -0.103182 0.125583 -0.985899 0.081142 -0.140055 
0.194297 0.590752 -0.506370 0.302319 0.374309 -0.873256 
-0.348328 -0.467988 0.157843 -0.797837 -0.168418 0.577657 
0.168486 -0.014626 0.937569 0.477292 0.360912 0.799468 
0.199157 0.225223 -0.175422 0.765088 -0.558283 0.318775 
0.114274 -0.644214 0.044888 -0.921444 -0.300046 0.099780 
-0.178553 -0.484871 0.384561 -0.465538 -0.862241 -0.168856 
0.219555 0.553858 -0.084653 0.722274 0.320516 0.596120 
0.036908 0.830244 -0.263159 0.140636 0.984431 0.088402 
-0.330936 -0.392317 0.694498 -0.949488 -0.165279 -0.188102 
-0.172188 0.118118 -0.429767 -0.281490 -0.953401 0.081555 
-0.099558 0.483153 0.041720 -0.322551 0.153541 0.921936 
0.142461 0.188734 0.700446 0.440891 0.883645 0.151757 
-0.174678 -0.691003 0.119210 0.491191 -0.629765 0.559690 
0.261506 0.163232 -0.441647 0.628208 -0.756911 0.121386 
-0.082611 -0.483735 0.709193 0.784909 -0.440425 -0.304914 
-0.361966 -0.365189 0.173127 -0.911532 -0.274798 0.276556 
0.287866 0.508637 -0.332210 0.976327 0.204466 -0.010391 
0.382365 -0.143921 0.150946 0.992931 0.026171 -0.099663 
0.234291 -0.236643 -0.128351 0.237065 -0.132574 -0.957813 
0.182625 0.193694 0.459960 0.572399 0.772533 0.265687 
0.051387 0.667122 -0.495020 0.052809 0.401805 -0.913318 
-0.260034 0.178876 0.286456 -0.839233 0.507619 0.189952 
0.200622 0.262756 0.281985 0.658395 0.707227 0.240662 
0.152007 -0.309406 0.927998 0.053012 -0.145450 0.984634 
-0.227993 0.307444 -0.124653 -0.766680 -0.442587 0.461494 
-0.087034 -0.563150 0.726386 0.890001 -0.152331 -0.397530 
0.294735 -0.567276 0.896386 0.657244 -0.148970 0.714279 
-0.320845 -0.480091 0.872849 -0.813037 -0.004741 0.542596 
-0.029862 0.830298 -0.253745 -0.116998 0.983604 0.127727 
0.063340 -0.150708 -0.203208 0.189336 -0.216190 -0.951270 
-0.314703 0.404267 -0.429562 -0.958247 0.272837 -0.076885 
0.305331 -0.661690 0.785138 0.857950 -0.480819 -0.036007 
-0.057910 -0.453625 0.784875 0.910828 -0.347855 0.051929 
0.185078 -0.071456 0.940893 0.503609 0.045603 0.861462 
0.133709 -0.167352 -0.180814 0.338319 -0.225018 -0.912825 
-0.131428 -0.651407 0.094340 0.823002 -0.335576 0.417129 
-0.315604 0.023599 0.599958 -0.872689 0.483638 0.048008 
-0.105743 -0.581347 0.892940 0.688042 -0.171607 0.698178 
0.308807 0.226233 -0.420813 0.857163 -0.474057 0.179286 
-0.380571 -0.096046 0.287098 -0.984897 0.144125 0.078145 
-0.071106 0.601075 -0.520839 -0.060576 0.382751 -0.921598 
0.126363 -0.286387 -0.120044 -0.003402 -0.493053 -0.862709 
-0.186334 -0.472289 0.616525 0.057708 -0.687164 -0.662191 
0.215171 -0.691041 -0.067635 -0.153959 -0.680959 -0.655895 
0.063625 0.230904 0.487412 0.144078 0.961155 0.225684 
0.300611 0.200878 -0.464627 0.805895 -0.575732 0.065687 
0.254898 -0.251421 0.900138 0.541121 0.078809 0.832624 
-0.243497 -0.696202 0.133401 -0.134003 -0.714418 0.633951 
-0.312570 -0.557677 0.878810 -0.789363 -0.135041 0.567796 
0.240057 0.169783 0.035770 0.748490 0.514513 -0.414038 
0.240680 0.260397 -0.204168 0.746824 -0.541346 0.382129 
0.344177 -0.109352 -0.012596 0.910639 0.170428 -0.374399 
0.346516 -0.359683 0.451797 0.906288 -0.404418 0.071696 
0.090960 0.503552 0.039966 0.310322 0.240294 0.910766 
-0.294589 -0.488348 0.658433 -0.680211 -0.244422 -0.640115 
-0.089528 -0.630749 0.752360 0.909577 -0.272027 -0.283672 
0.181407 -0.673158 0.141490 -0.459603 -0.506792 0.708419 
-0.264272 0.064553 -0.034006 -0.705993 0.452376 -0.539710 
-0.327833 0.342500 -0.454200 -0.983194 0.138830 -0.051175 
0.327559 0.703769 -0.332510 0.196295 0.316047 -0.900286 
0.267560 0.105565 0.008539 0.748373 0.483990 -0.451674 
0.055130 0.108121 -0.371947 0.064035 -0.980559 0.180871 
0.279545 -0.672872 0.855734 0.677893 -0.554018 0.455390 
0.350564 -0.085370 0.641503 0.983649 0.138091 0.093459 
0.181984 -0.197726 -0.152276 0.314360 -0.259703 -0.909464 
-0.343202 0.037479 0.191337 -0.910943 0.409383 -0.001277 
0.378772 -0.303073 0.123460 0.988571 -0.083542 0.065731 
0.289283 0.047178 -0.015436 0.761144 0.438611 -0.472725 
-0.194820 0.877018 -0.231014 -0.480722 -0.022836 0.856701 
0.208552 0.700999 -0.444962 0.564301 0.535555 -0.613291 
0.205401 -0.708781 0.704780 0.066721 -0.767846 -0.580357 
-0.287102 -0.203128 0.863930 -0.788848 0.086866 0.607096 
0.213483 0.133690 -0.431090 0.428050 -0.890274 0.120277 
0.203514 0.439809 -0.584193 0.291246 0.566858 -0.769386 
0.371004 -0.193368 0.426686 0.994432 -0.012816 0.102684 
0.442184 0.718642 -0.168184 0.441700 0.475062 0.690556 
-0.158752 -0.566564 0.922602 0.269896 -0.096324 0.946522 
0.211179 -0.042489 -0.139221 0.526765 0.222053 -0.817748 
-0.359978 0.661264 -0.316449 -0.405306 -0.454075 -0.774139 
0.360923 -0.339118 0.335428 0.931581 -0.362262 0.029122 
0.020881 -0.442748 0.112450 0.056707 -0.984071 -0.162365 
-0.429693 0.662843 -0.247120 -0.734262 -0.518661 -0.411016 
0.228093 0.731032 -0.175642 0.054596 0.548889 0.828429 
0.005658 0.776609 -0.119639 0.058731 0.786431 0.594966 
-0.200117 0.277530 0.225608 -0.642619 0.756676 0.094940 
0.025098 0.805591 -0.402794 0.055914 0.833888 -0.532958 
0.052910 0.177333 0.816639 0.161545 0.864478 0.469890 
-0.021512 0.744153 -0.088620 -0.223302 0.668379 0.680140 
-0.296174 0.210924 -0.550326 -0.743913 -0.543004 -0.344725 
-0.350314 -0.216647 0.634107 -0.992772 -0.054718 0.106287 
0.113388 0.470723 -0.579754 0.093795 0.530842 -0.839720 
-0.266036 0.171921 -0.420456 -0.664021 -0.713270 0.193148 
0.303202 0.342119 -0.258766 0.938118 -0.167976 0.271657 
0.341070 0.589532 -0.168185 0.369259 -0.813805 0.394568 
0.329198 0.293290 -0.417611 0.979871 -0.123394 0.096123 
-0.295388 -0.413349 0.437843 -0.461071 -0.883054 -0.009055 
-0.262657 0.169530 0.081425 -0.807801 0.508346 -0.295324 
-0.071221 0.404136 0.043663 -0.185823 -0.220796 0.953846 
-0.188880 -0.031946 -0.149839 -0.509035 0.213065 -0.831713 
-0.020284 0.398482 0.047560 -0.048180 -0.216308 0.973299 
0.092428 -0.137703 0.971027 0.232856 -0.128914 0.963536 
-0.145076 -0.694805 0.068191 0.684309 -0.639240 0.239546 
0.272626 0.708644 -0.338378 0.303052 0.571454 -0.724730 
-0.097276 -0.019744 -0.198869 -0.479161 0.006763 -0.869240 
-0.129711 -0.295615 0.932400 -0.052193 -0.209918 0.973626 
-0.074789 0.170035 -0.600962 -0.035336 -0.731257 -0.674153 
0.279435 0.559052 -0.324167 0.989978 0.117698 -0.060428 
-0.265305 0.109183 0.460493 -0.779298 0.612865 0.126971 
0.118167 -0.503833 0.362498 0.276287 -0.924333 -0.258206 
-0.245925 0.228235 -0.263584 -0.715906 -0.597694 0.354901 
-0.126453 -0.669559 0.001839 0.816608 -0.486402 -0.203226 
0.131828 -0.675108 -0.010231 -0.777177 -0.514536 -0.298331 
-0.006990 0.325310 0.154305 -0.007038 0.998725 0.045438 
0.061580 0.392553 0.042226 0.155514 -0.211476 0.962193 
0.102034 -0.508364 -0.008470 -0.970055 -0.063285 -0.180497 
0.376194 -0.215618 0.045063 0.985365 0.094086 -0.137065 
-0.261087 -0.706244 0.822661 -0.553319 -0.755042 0.234517 
-0.020941 -0.073316 1.044061 -0.344516 -0.028681 0.912939 
0.380370 -0.087070 0.156242 0.986334 0.121840 -0.091000 
-0.110015 -0.616839 -0.000797 0.938478 -0.206219 -0.188677 
-0.254500 0.147739 0.034682 -0.762028 0.500536 -0.406699 
-0.245463 -0.056736 0.894258 -0.664985 0.178392 0.723267 
0.232711 -0.121051 -0.138604 0.519412 0.028287 -0.851428 
0.275432 -0.110895 0.870211 0.756512 0.049859 0.647830 
0.165598 0.626921 -0.091655 0.492734 0.536792 0.677353 
0.147293 0.617795 -0.505186 0.174649 0.380143 -0.906053 
0.207492 0.160346 0.516806 0.640171 0.758727 0.110541 
0.255900 0.551458 -0.128352 0.829445 -0.141816 0.488429 
-0.301766 0.424594 -0.257552 -0.976799 0.141653 0.155361 
0.337956 -0.368210 0.713730 0.988894 -0.076273 -0.092401 
0.133884 -0.680170 0.076233 -0.785301 -0.517502 0.307570 
-0.269033 0.435161 -0.127387 -0.928600 0.042493 0.352439 
-0.360133 -0.322119 0.423784 -0.968235 -0.226283 0.081160 
0.105973 -0.595470 0.888152 -0.701842 -0.207132 0.665505 
-0.044057 0.108245 -0.368143 -0.051170 -0.980550 0.187222 
-0.143939 -0.257596 -0.137422 -0.125228 -0.430539 -0.882519 
0.103215 -0.537909 0.046081 -0.982045 -0.049057 0.127409 
-0.144441 -0.632474 -0.062173 0.695244 -0.311770 -0.628502 
0.338787 -0.020735 0.540095 0.930301 0.359026 0.038738 
0.298792 0.572983 -0.198717 0.452185 -0.874688 -0.033053 
0.396975 0.754339 -0.208977 0.104548 0.948832 0.269804 
-0.380744 -0.510736 0.051760 -0.981076 -0.108085 0.118209 
0.162096 -0.562156 -0.092965 -0.545353 -0.114835 -0.803163 
-0.021712 -0.147693 0.980182 -0.052723 -0.176516 0.982211 
-0.058370 -0.019809 0.994411 -0.283183 0.589977 0.752989 
0.313711 0.407335 -0.429641 0.957788 0.273520 -0.079950 
0.024804 -0.117023 0.985107 0.072742 -0.168957 0.982096 
-0.197430 -0.522295 0.182779 0.376172 -0.148139 0.911017 
-0.172294 0.056474 -0.135457 -0.683752 0.205362 -0.689394 
-0.255010 -0.173844 0.893591 -0.656624 0.038707 0.748456 
0.250063 0.190224 0.084458 0.787685 0.535282 -0.301071 
-0.261555 -0.562931 0.654563 -0.429861 -0.224736 -0.859323 
-0.057184 -0.296631 0.931534 0.084976 -0.422283 0.897411 
0.323562 0.040345 0.375282 0.876955 0.463813 0.124181 
-0.061211 0.411751 -0.624387 -0.024943 0.575166 -0.817357 
0.077952 -0.264758 -0.144765 0.171055 -0.605940 -0.776394 
-0.175638 0.206505 -0.059347 -0.959993 0.156009 -0.183253 
-0.078622 0.110682 -0.242764 -0.488743 -0.633556 -0.582319 
0.314916 -0.236438 0.821592 0.917404 0.121436 0.375596 
0.294372 0.081017 0.407311 0.832662 0.535039 0.141969 
-0.366164 -0.054629 0.343652 -0.958003 0.258136 0.111422 
0.030082 -0.520536 0.502066 0.076011 -0.964105 0.236464 
-0.369941 -0.044802 0.286771 -0.956125 0.275469 0.086170 
-0.012708 0.262197 0.407219 -0.014473 0.923992 0.380915 
-0.050312 0.356326 0.036687 -0.153699 0.128680 0.959817 
-0.253620 0.370757 -0.609929 -0.515571 0.446412 -0.720370 
0.043664 0.106317 -0.478755 0.024747 -0.974864 -0.201819 
-0.315644 -0.504838 0.177166 -0.536831 -0.215712 0.793978 
0.156594 0.728732 -0.449470 0.255312 0.567203 -0.775998 
0.092097 -0.508076 0.697183 -0.741902 -0.379907 -0.418083 
0.283841 -0.296952 0.885244 0.630975 0.133394 0.740620 
0.382029 -0.264626 0.171503 0.995708 -0.087159 0.008789 
0.198663 0.054335 0.873811 0.557253 0.528921 0.637733 
-0.146900 0.017236 -0.163783 -0.594835 0.143686 -0.784871 
-0.284100 0.046319 0.736297 -0.813336 0.537507 0.213042 
0.239105 -0.474373 0.202091 -0.036751 -0.413305 0.841544 
0.040821 0.220371 0.684778 0.122771 0.982657 0.120784 
0.044359 -0.194969 0.969074 0.090050 -0.230774 0.968212 
0.284512 0.718790 -0.167219 -0.016640 0.540790 0.831406 
0.243996 0.046971 -0.072169 0.653859 0.418496 -0.629345 
-0.121291 0.717879 -0.140679 -0.434248 0.549113 0.712327 
-0.181474 -0.205265 -0.149610 -0.290626 -0.275419 -0.911560 
0.364587 -0.181145 0.498749 0.996395 -0.010960 0.081949 
-0.117389 0.894207 -0.259868 0.863484 0.466117 -0.040076 
0.243123 0.128348 0.499154 0.728100 0.675717 0.101872 
0.385683 -0.113623 0.204972 0.995734 0.074668 -0.024111 
0.328897 -0.012163 0.667943 0.916046 0.385590 0.106285 
0.128641 -0.482346 0.310802 0.291932 -0.890617 -0.348506 
0.213282 0.184710 0.415750 0.687038 0.666498 0.287740 
0.275960 0.139788 0.318751 0.842378 0.504498 0.188550 
0.344061 -0.595694 -0.074109 0.740093 -0.290060 -0.591299 
0.266233 -0.675928 -0.080969 0.242697 -0.605280 -0.712304 
0.314459 -0.003054 0.728621 0.887149 0.411070 0.200687 
0.058160 0.767932 -0.136126 0.375913 0.675963 0.632110 
0.363234 -0.111033 0.046307 0.960997 0.116553 -0.248233 
-0.382935 -0.412023 -0.009835 -0.974906 0.015387 -0.175479 
-0.302525 0.039596 0.651874 -0.846627 0.522714 0.085757 
-0.252438 -0.227604 0.900135 -0.574115 0.065246 0.814031 
-0.366976 -0.564512 -0.041616 -0.894205 -0.205067 -0.346856 
-0.327079 -0.043693 0.740026 -0.930120 0.270544 0.231506 
0.329518 -0.231609 0.768447 0.970955 0.047656 0.229434 
-0.275693 -0.094978 0.869133 -0.758245 0.068572 0.644319 
-0.079616 0.065525 0.930431 -0.256233 0.551712 0.791840 
0.169686 0.189014 -0.138128 0.929130 -0.325499 0.020109 
-0.313371 -0.184934 0.812846 -0.912845 0.024984 0.400850 
-0.301509 -0.000854 0.772067 -0.858461 0.416356 0.293701 
0.173005 0.244773 -0.071146 0.965154 -0.084884 0.180877 
0.301165 0.234128 -0.567425 0.784258 -0.393453 -0.433708 
-0.324202 -0.589611 0.837073 -0.927556 -0.234856 0.260573 
0.319925 0.033002 0.433509 0.873266 0.477045 0.094455 
-0.348070 -0.269867 0.623596 -0.992949 -0.072425 0.091651 
0.382082 -0.252814 0.112583 0.998661 -0.011560 -0.017282 
-0.238613 0.575884 -0.111449 -0.636662 0.059173 0.740070 
0.300779 0.456149 -0.355177 0.966397 0.243236 -0.009700 
0.246478 -0.631199 0.910961 0.353396 -0.320623 0.862242 
-0.181443 -0.723805 0.035210 0.349763 -0.911106 -0.000194 
-0.050918 -0.445525 0.721005 0.458654 -0.832657 0.146309 
-0.156353 0.104037 0.861645 -0.455904 0.651757 0.603198 
-0.071410 0.808454 -0.386004 -0.168842 0.884090 -0.410223 
0.172274 0.293637 -0.048352 0.837594 -0.190071 0.484486 
-0.092972 0.840500 -0.265554 0.877703 0.441071 -0.125939 
0.375601 -0.156540 0.383290 0.992811 0.036065 0.108483 
0.287779 0.502953 -0.387368 0.963770 0.245379 -0.091121 
0.098976 -0.299823 0.929475 -0.037234 -0.307809 0.939878 
-0.116308 -0.468808 0.599066 -0.279787 -0.905612 0.287861 
0.195664 -0.436595 0.924159 0.001585 0.035583 0.988412 
0.452817 0.701905 -0.239751 0.844239 -0.123482 -0.405678 
-0.047902 0.149579 0.861064 -0.148000 0.784366 0.596746 
0.357796 -0.127904 0.589306 0.995512 0.044058 0.072381 
-0.267561 0.580305 -0.416051 -0.959018 0.225619 -0.165494 
-0.155747 -0.054491 0.955760 -0.444380 0.057701 0.891102 
-0.340197 -0.479403 0.808640 -0.980707 -0.039975 0.108997 
0.331146 -0.434230 0.704800 0.950331 -0.148779 -0.242641 
-0.375270 -0.346357 0.119756 -0.969526 -0.108725 0.158695 
0.166043 0.171971 -0.204619 0.739357 -0.655371 0.071692 
0.093077 0.214313 -0.637612 0.051760 -0.534218 -0.838937 
-0.222411 -0.284801 0.916716 -0.319608 -0.001314 0.942009 
-0.052070 -0.378504 -0.021005 -0.099372 -0.818607 -0.564234 
0.391250 0.699867 -0.151372 0.061092 0.357688 0.922053 
-0.246366 -0.683069 0.882945 -0.438504 -0.600710 0.653964 
-0.022270 -0.514808 0.343904 -0.056157 -0.949587 -0.297627 
-0.134274 0.398500 -0.629566 -0.101098 0.552626 -0.825458 
-0.127761 -0.709764 0.785826 0.607148 -0.747959 -0.031538 
0.140156 0.197504 0.586743 0.423157 0.904188 0.048237 
-0.236996 -0.436528 0.446150 -0.475285 -0.876563 0.025902 
0.200013 0.229208 0.035404 0.768148 0.534778 -0.348190 
-0.042190 0.037151 0.958819 -0.158038 0.543044 0.823231 
-0.062323 0.707819 -0.081634 -0.464452 0.591479 0.654487 
-0.109947 0.135741 -0.548966 -0.080023 -0.874665 -0.467454 
-0.288821 0.732590 -0.176491 0.003848 0.642551 0.752670 
-0.308273 0.714809 -0.327822 -0.147477 0.554112 -0.784029 
-0.373087 -0.251186 0.385582 -0.991900 -0.079484 0.095625 
-0.187010 0.832669 -0.326816 -0.517069 -0.144033 -0.802323 
0.161023 -0.131927 0.949538 0.371474 -0.069938 0.925418 
0.085755 -0.322079 -0.095018 -0.102652 -0.618406 -0.741635 
0.363111 0.648948 -0.305657 0.424887 -0.571583 -0.683979 
0.335065 -0.182910 -0.062227 0.793803 0.155816 -0.568365 
-0.347970 0.005308 0.321339 -0.912531 0.393118 0.112194 
0.239247 0.656779 -0.445091 0.818022 0.386765 -0.404832 
0.177361 0.132245 -0.370620 0.349757 -0.897137 0.250566 
0.176102 -0.504138 0.171545 -0.500482 -0.212669 0.775333 
0.060565 0.253474 -0.658098 0.025222 -0.331675 -0.939173 
-0.376861 -0.107688 0.339750 -0.985852 0.123593 0.102436 
0.177991 0.178198 0.554590 0.548033 0.832162 0.075255 
0.008507 0.814324 -0.187997 0.055425 0.918173 0.381326 
0.154699 -0.627358 0.667842 -0.432423 -0.273474 -0.854525 
-0.341394 -0.206279 0.706914 -0.985357 -0.037120 0.162937 
-0.245149 -0.431234 0.384695 -0.454652 -0.885883 -0.054541 
-0.101655 0.362975 -0.653270 -0.059485 0.408139 -0.902441 
-0.166965 0.347851 -0.653540 -0.170346 0.323906 -0.922550 
0.333647 -0.455629 0.174366 0.678238 -0.217099 0.641439 
0.084994 0.346712 0.029017 0.329496 0.184467 0.922789 
-0.006990 -0.393470 0.813779 0.068364 -0.868535 0.483590 
-0.229156 0.145242 0.482344 -0.701663 0.694885 0.147447 
-0.340395 -0.325231 0.707742 -0.997514 -0.036504 0.004739 
-0.298153 0.267321 -0.319699 -0.856744 -0.410629 0.299180 
0.219223 -0.291600 -0.121277 0.056019 -0.155908 -0.977217 
-0.188517 -0.476764 0.479324 -0.614962 -0.748966 0.226113 
0.384269 -0.213719 0.166205 0.998252 -0.018949 -0.037212 
0.334837 -0.547381 0.772221 0.979215 -0.150109 -0.096410 
0.077911 0.102699 -0.434433 0.073126 -0.993951 -0.002547 
0.263388 -0.078879 -0.111464 0.627699 0.157378 -0.757821 
-0.212084 0.053667 0.862298 -0.597923 0.532080 0.597982 
0.258657 0.495355 -0.130601 0.908893 0.184491 0.355537 
-0.368322 0.760889 -0.240865 -0.078582 0.989743 -0.038352 
-0.144522 -0.490408 0.643847 0.344239 -0.556712 -0.702094 
0.352846 -0.230069 0.601713 0.992949 -0.064679 0.099281 
-0.240432 0.060542 0.818947 -0.696351 0.564488 0.439356 
0.168763 0.261167 0.343308 0.491134 0.775854 0.381522 
-0.279668 -0.419526 0.542392 -0.469119 -0.872732 -0.065265 
-0.352117 0.013111 0.146752 -0.923647 0.370747 -0.074975 
0.107162 0.727734 -0.137121 0.448096 0.553958 0.697584 
0.381605 -0.166276 0.331510 0.995524 0.010566 0.090521 
0.301476 0.411485 -0.491392 0.892755 0.348914 -0.252430 
0.187212 0.452229 -0.002371 0.634690 0.039438 0.751928 
-0.113682 0.687576 -0.480663 -0.127529 0.434255 -0.891154 
-0.039638 -0.357071 0.883489 0.406810 -0.615237 0.644746 
0.374378 -0.359166 -0.039032 0.928341 0.066616 -0.338869 
-0.045872 0.354198 -0.658794 -0.016089 0.347374 -0.929437 
0.200222 0.100730 -0.080186 0.700471 0.370844 -0.601170 
-0.259514 0.477069 -0.524467 -0.694212 0.417111 -0.581416 
0.104569 0.233563 0.454889 0.249753 0.906346 0.330491 
-0.111107 0.104653 -0.440903 -0.119320 -0.991425 -0.014486 
0.169439 0.144700 -0.105577 0.906196 0.093898 -0.377414 
0.218932 0.259693 0.215303 0.733597 0.668675 0.070884 
-0.027227 -0.200273 0.969058 -0.052030 -0.250776 0.965948 
-0.273554 0.578563 -0.360388 -0.980302 0.153621 -0.112121 
-0.267538 -0.650727 0.159139 -0.307860 -0.469532 0.790401 
0.045729 0.442831 0.054892 0.127288 -0.091562 0.983460 
-0.302610 -0.630642 0.723249 -0.834075 -0.337217 -0.412436 
0.230831 0.269734 -0.641184 0.356507 -0.235334 -0.892153 
0.357017 -0.019045 0.323886 0.932073 0.340561 0.111472 
0.113325 -0.381684 -0.068222 -0.583517 -0.303239 -0.699711 
-0.351897 -0.363163 0.240201 -0.841944 -0.516124 0.119144 
-0.009958 0.472239 0.058455 -0.027717 0.043875 0.988629 
-0.007816 0.237805 0.478813 -0.011590 0.969106 0.235464 
-0.216329 0.754219 -0.298183 -0.509188 0.837080 -0.157605 
0.147846 -0.676948 0.886962 -0.447615 -0.534712 0.702971 
0.227081 -0.173800 -0.139028 0.402458 -0.101046 -0.906552 
0.185746 -0.710741 0.864021 -0.092987 -0.793815 0.530993 
0.252390 0.585993 -0.471094 0.836264 0.283563 -0.466772 
0.224543 0.878150 -0.279773 0.971158 -0.128004 -0.035115 
0.274238 -0.415946 0.329722 0.379950 -0.923498 -0.031907 
0.137463 0.134641 -0.184689 0.824581 -0.412490 -0.340723 
0.184469 0.696217 -0.154001 0.202066 0.513586 0.831741 
0.155075 0.100466 -0.143967 0.820054 0.024498 -0.540481 
0.227223 0.718372 -0.378535 0.779203 0.551570 -0.286953 
-0.317446 0.325448 -0.320847 -0.965065 -0.132261 0.210005 
0.282198 0.424830 -0.170064 0.948226 0.052403 0.293047 
-0.177511 0.293627 0.165423 -0.505885 0.854347 -0.059446 
0.008206 -0.429709 0.051752 0.049100 -0.931890 -0.342170 
0.120508 0.311635 0.057261 0.449235 0.880360 0.082140 
-0.018697 -0.416909 0.769457 0.154035 -0.893287 0.407214 
-0.201087 -0.441235 0.213526 0.124268 -0.853637 0.375816 
0.352782 -0.535931 0.127566 0.831952 -0.166235 0.494669 
-0.353365 -0.138926 -0.002223 -0.926779 0.164647 -0.329790 
0.010371 0.282793 -0.665523 0.003817 -0.155280 -0.979477 
0.070557 -0.443529 0.145621 0.077437 -0.986162 -0.140595 
0.064764 -0.428756 0.076680 0.130292 -0.941085 -0.306283 
-0.361429 -0.061915 0.399491 -0.962780 0.242943 0.103911 
-0.329145 -0.528538 0.733711 -0.946750 -0.147747 -0.264343 
0.337574 -0.483914 0.754318 0.976630 -0.081577 -0.147648 
0.285092 -0.193517 -0.110816 0.506789 0.040324 -0.857189 
0.086775 0.303536 -0.667850 0.040932 -0.024593 -0.996000 
0.368707 -0.321468 0.273947 0.952610 -0.295554 0.041704 
0.376218 -0.355102 0.114904 0.973327 -0.096619 0.164348 
-0.178375 0.695236 -0.152700 -0.222853 0.515660 0.826262 
0.129144 -0.013781 -0.181713 0.524208 0.089222 -0.843532 
0.229685 0.136558 -0.014843 0.722741 0.470762 -0.501951 
-0.140066 -0.569643 -0.077199 0.693532 -0.134224 -0.696934 
-0.286631 -0.423144 0.232244 -0.362345 -0.701200 0.495159 
-0.252815 -0.625779 0.911574 -0.401450 -0.293406 0.863856 
-0.353825 -0.278701 0.556213 -0.990323 -0.100717 0.093703 
-0.259827 0.330335 -0.158420 -0.824704 -0.376109 0.412920 
-0.003291 0.114299 -0.331850 -0.005430 -0.986707 0.153228 
-0.372001 -0.215769 0.021402 -0.970266 0.115062 -0.192788 
0.191427 0.522954 -0.030845 0.662269 0.362376 0.649034 
0.308265 0.101039 0.115458 0.882556 0.445131 -0.143626 
0.051236 -0.280010 0.939017 -0.020271 -0.419683 0.905064 
-0.021879 0.586010 -0.528360 -0.016736 0.381804 -0.923772 
0.033028 -0.036796 1.017637 0.188475 0.651392 0.732222 
-0.098160 0.304698 0.288797 -0.124541 0.955446 0.251912 
-0.330444 -0.187898 -0.072679 -0.761740 0.150039 -0.623087 
-0.094216 -0.407554 -0.014237 0.834260 -0.384080 -0.333239 
0.115608 0.000340 0.956380 0.381469 0.447139 0.808585 
0.372392 -0.164197 0.065996 0.978724 0.096495 -0.167019 
0.008546 0.356980 -0.657618 0.003020 0.365400 -0.922268 
0.276078 0.303645 -0.221465 0.837625 -0.396434 0.364563 
-0.384026 -0.237741 0.208818 -0.997324 -0.066599 0.003584 
-0.165248 -0.429555 -0.098871 0.427986 -0.047552 -0.882185 
0.026828 -0.508446 0.327057 0.068045 -0.938739 -0.328116 
0.355092 -0.072285 0.509481 0.974871 0.207723 0.049662 
-0.280541 0.526805 -0.408141 -0.962044 0.236175 -0.128069 
0.012200 0.133197 -0.550420 0.005822 -0.873739 -0.480000 
-0.096509 0.211990 0.633963 -0.287224 0.954904 0.050867 
-0.092616 0.605471 -0.015432 -0.407390 0.523131 0.740696 
0.374510 -0.552541 -0.023668 0.945778 -0.174727 -0.227778 
-0.371843 -0.312938 0.235037 -0.961530 -0.260708 0.041356 
-0.071422 0.120653 -0.323075 -0.134953 -0.970151 0.187017 
-0.289255 -0.422086 0.597496 -0.605072 -0.716880 -0.258376 
0.155035 0.042803 -0.151984 0.660087 0.153700 -0.725744 
-0.200889 0.666860 -0.470995 -0.375597 0.443320 -0.810158 
-0.379613 -0.511076 -0.025563 -0.962036 -0.089657 -0.224818 
0.254963 0.425179 -0.567921 0.570757 0.519686 -0.634237 
-0.238378 0.026579 -0.089617 -0.624929 0.382327 -0.677683 
-0.219152 0.479437 -0.043393 -0.773401 0.199335 0.576630 
-0.385423 -0.108937 0.233798 -0.994493 0.092417 0.017332 
0.315678 -0.431030 0.879258 0.765315 0.052555 0.626155 
-0.036866 0.125641 -0.536554 -0.018467 -0.902623 -0.427668 
0.344626 -0.029592 0.480160 0.938207 0.334745 0.058312 
-0.280647 0.159472 0.230275 -0.876101 0.471472 0.095343 
-0.261079 0.555340 -0.468294 -0.869678 0.271516 -0.397936 
0.372714 -0.485767 0.100152 0.945260 -0.105591 0.296467 
0.386563 -0.149707 0.259601 0.998497 0.018055 0.035559 
0.426345 0.748711 -0.253761 0.414102 0.830851 -0.318146 
0.014639 0.433921 -0.608656 0.007585 0.565213 -0.824681 
0.335153 -0.185362 0.743953 0.971269 -0.028012 0.230099 
-0.311919 -0.422537 0.884136 -0.732978 0.064807 0.672087 
0.087852 0.104479 0.897326 0.267744 0.644087 0.711975 
-0.277572 0.393191 -0.564282 -0.698630 0.448983 -0.510161 
0.144093 0.473935 0.024139 0.476051 0.133596 0.855460 
-0.260329 0.651312 -0.377745 -0.878941 0.175810 -0.423282 
-0.342037 -0.432119 0.773742 -0.994837 -0.019229 -0.032694 
-0.097169 0.316680 0.222217 -0.128409 0.985691 0.094458 
0.144214 -0.481614 0.641730 -0.330107 -0.622256 -0.670565 
-0.319115 0.089140 0.189550 -0.897184 0.440269 0.007524 
-0.371800 -0.259538 -0.007108 -0.955095 0.109032 -0.251852 
-0.293101 -0.513607 0.900460 -0.602217 -0.041334 0.762343 
-0.160680 -0.491116 0.164160 0.556966 -0.341513 0.640440 
-0.185572 0.152721 -0.065591 -0.825858 0.314414 -0.462500 
0.375330 -0.224043 0.380510 0.993636 -0.046957 0.101648 
0.033517 -0.421594 0.767035 -0.382168 -0.858079 0.330350 
-0.340751 -0.103320 0.726735 -0.974698 0.068214 0.209686 
0.170588 0.571385 -0.046578 0.594678 0.453159 0.655989 
0.091783 -0.660503 0.791819 -0.894638 -0.403589 -0.022422 
-0.414876 0.743791 -0.189722 -0.162887 0.828635 0.468820 
-0.049945 0.538377 0.038328 -0.202600 0.355798 0.899672 
0.149367 -0.475693 0.922525 -0.248333 0.002006 0.967475 
0.063436 0.568011 0.022532 0.278014 0.439168 0.851932 
0.251831 -0.704364 0.728983 0.502764 -0.745587 -0.391966 
-0.184456 -0.644862 0.663630 0.181106 -0.333043 -0.901740 
-0.110690 -0.627146 0.050759 0.948792 -0.217757 0.145368 
0.137781 -0.543026 0.663002 -0.502871 -0.202849 -0.813926 
0.233202 0.739015 -0.320527 0.462885 0.803621 -0.326263 
0.124169 -0.512363 0.426598 0.296292 -0.949479 -0.026174 
0.121408 -0.561831 0.105121 -0.880460 -0.061994 0.443746 
0.280089 0.599256 -0.134207 0.344096 -0.177553 0.887063 
-0.322207 0.754854 -0.271236 -0.009373 0.932745 -0.336414 
-0.041480 0.112639 0.903110 -0.133776 0.673725 0.722759 
0.330140 -0.383561 0.248328 0.689461 -0.685304 0.162609 
-0.383532 -0.325872 0.058892 -0.998540 0.007753 -0.003709 
0.212399 -0.381435 0.921834 0.121040 0.037504 0.991147 
-0.168084 0.174124 -0.111653 -0.966393 -0.082122 -0.173059 
-0.197586 0.586914 -0.083288 -0.585260 0.427353 0.676765 
0.340643 -0.414038 0.757581 0.991317 -0.030028 -0.065349 
0.323442 -0.372469 -0.100669 0.486952 0.061026 -0.837524 
-0.100025 -0.554120 0.030792 0.995811 -0.056800 0.049881 
0.235426 0.207325 -0.603714 0.366087 -0.598171 -0.688771 
-0.413659 0.747239 -0.267402 -0.374515 0.780691 -0.426358 
-0.230819 0.693416 -0.419171 -0.818529 0.473107 -0.311981 
0.350418 -0.305339 -0.072781 0.760336 0.099328 -0.620780 
0.330001 -0.078914 0.757149 0.946536 0.144062 0.274013 
-0.200119 -0.124475 -0.156399 -0.462737 -0.024198 -0.882999 
0.151939 0.159897 0.777009 0.464920 0.809253 0.348564 
-0.134955 0.802259 -0.354896 -0.342000 0.925742 -0.154257 
0.009248 -0.441045 0.712858 -0.009383 -0.925119 0.378822 
-0.382379 -0.224880 0.151007 -0.996273 -0.024531 -0.038795 
-0.153478 -0.488044 0.923142 0.234174 -0.007404 0.967902 
-0.262332 0.216111 -0.317383 -0.715133 -0.605647 0.333183 
0.014892 -0.273343 -0.147564 0.040319 -0.618960 -0.780719 
0.053518 0.616600 -0.002995 0.291472 0.514837 0.799629 
0.251318 0.541045 -0.496363 0.730288 0.337071 -0.573776 
0.199156 0.643053 -0.482738 0.350333 0.396480 -0.842858 
0.067767 -0.520454 0.385320 0.166461 -0.963101 -0.180002 
0.331218 0.060976 0.225521 0.898206 0.434023 0.051788 
-0.138112 0.506986 0.016655 -0.469899 0.292921 0.817512 
-0.042932 0.224757 0.579385 -0.116499 0.991148 0.043111 
-0.274850 0.481816 -0.175860 -0.953424 0.154459 0.248352 
-0.195426 -0.330682 0.921272 -0.130333 -0.034420 0.984738 
-0.353187 -0.353691 0.365504 -0.889077 -0.438322 0.017483 
0.178472 -0.447258 0.273299 0.371681 -0.890665 -0.209954 
0.218201 0.394489 -0.045266 0.742306 -0.247539 0.613740 
-0.235787 -0.671180 -0.093538 0.014583 -0.557732 -0.817282 
0.081261 -0.408959 0.028642 -0.458618 -0.826408 -0.320938 
0.333094 -0.365652 0.654901 0.967017 -0.216880 -0.085835 
-0.356515 0.005083 0.229445 -0.926134 0.371370 0.042903 
0.032031 0.213001 -0.638267 0.014340 -0.535733 -0.840082 
0.325462 0.003601 0.609152 0.899397 0.430049 0.052448 
-0.001790 -0.459237 0.196606 -0.004314 -0.959118 -0.277708 
-0.147303 0.936767 -0.264167 0.641566 0.723299 -0.102944 
-0.073233 0.767829 -0.438399 -0.122026 0.646058 -0.744066 
-0.057719 0.663109 -0.037323 -0.387386 0.564214 0.726789 
-0.175424 -0.002547 0.927322 -0.488513 0.395126 0.775742 
0.048372 0.319584 0.224309 0.032652 0.992350 0.115398 
0.232870 0.141358 -0.478794 0.453475 -0.877153 -0.073194 
-0.188904 0.393777 -0.622886 -0.230231 0.544445 -0.803023 
-0.208035 -0.191968 0.925337 -0.447273 -0.026217 0.893216 
0.290277 0.107838 0.056535 0.826451 0.469131 -0.309898 
-0.207408 0.254172 -0.148831 -0.782720 -0.484378 0.379792 
0.289730 -0.415810 0.450215 0.437091 -0.895883 -0.002784 
-0.251067 0.624506 -0.444740 -0.892915 0.295576 -0.328646 
-0.138112 0.190637 0.702660 -0.426656 0.890150 0.157538 
-0.218250 0.335986 -0.645002 -0.327231 0.272964 -0.900306 
-0.364566 -0.261258 0.459671 -0.991236 -0.082632 0.100065 
-0.318820 0.384464 -0.357300 -0.980733 0.159922 0.058529 
-0.332663 -0.575956 -0.090241 -0.629916 -0.226922 -0.712902 
-0.354639 -0.097437 0.616644 -0.992004 0.102970 0.072499 
0.178137 0.772232 -0.207070 0.416976 0.748826 0.505262 
0.339156 0.722095 -0.165794 -0.015686 0.570015 0.805368 
-0.120450 0.006861 0.950643 -0.374533 0.454243 0.807888 
0.013147 0.101679 -0.405231 0.011862 -0.994565 0.098825 
-0.238460 0.254633 -0.207555 -0.740947 -0.553146 0.378077 
0.247245 0.172275 0.350745 0.795975 0.553445 0.243757 
0.129735 0.138684 0.838997 0.385522 0.754468 0.530202 
-0.207926 0.826018 -0.249267 -0.859399 -0.203455 0.467331 
0.254963 0.142479 0.391931 0.785227 0.578424 0.214461 
0.141681 0.194712 0.640064 0.433463 0.899026 0.056341 
-0.386114 -0.196848 0.239668 -0.998933 -0.035209 0.011643 
-0.340142 -0.349388 0.758274 -0.995765 0.022882 0.029846 
-0.280246 -0.467981 0.201973 -0.272441 -0.406343 0.835090 
-0.198257 -0.267734 -0.123906 -0.071626 -0.243150 -0.955534 
0.162427 0.142303 -0.321587 0.353124 -0.890913 0.277464 
0.243431 0.122893 0.552014 0.721292 0.689363 0.055030 
0.310360 0.645303 -0.324005 0.331641 -0.521598 -0.748681 
-0.141350 -0.501055 0.483032 -0.344460 -0.917822 0.184249 
0.232171 -0.071914 0.907358 0.629769 0.111433 0.765021 
0.328245 -0.390639 0.415022 0.702960 -0.695821 0.005352 
0.153329 0.289893 0.003108 0.830968 0.456412 0.171803 
-0.091728 -0.271476 -0.134745 -0.139365 -0.595107 -0.785962 
0.325841 -0.591693 0.814574 0.941166 -0.240332 0.134152 
0.366271 -0.132609 0.463836 0.993487 0.070844 0.082915 
0.023587 -0.477687 0.619727 0.050073 -0.927039 0.370381 
-0.303994 -0.439162 0.647308 -0.761128 -0.339412 -0.465214 
0.237496 -0.682442 0.888030 0.359692 -0.591855 0.694790 
0.299728 0.111159 0.280342 0.869329 0.475464 0.133167 
-0.047886 0.044652 -0.231482 -0.346655 -0.181842 -0.912929 
0.188378 -0.559474 0.646012 -0.144374 -0.209098 -0.952976 
-0.305337 -0.667669 0.118718 -0.617949 -0.560617 0.523927 
-0.087622 0.755642 -0.147693 -0.421800 0.611348 0.664942 
0.318300 -0.688592 0.059783 0.670151 -0.675160 0.181988 
0.110379 0.212101 0.540421 0.313786 0.943590 0.098104 
-0.159336 -0.446173 0.244659 -0.268432 -0.939733 -0.191222 
-0.087585 0.210500 0.687633 -0.265671 0.952272 0.130629 
-0.061681 0.263115 -0.661627 -0.024938 -0.278827 -0.957577 
0.386037 0.606358 -0.199235 0.496157 -0.848673 -0.034633 
0.241983 -0.337501 -0.117364 0.012899 -0.028468 -0.996984 
-0.345562 -0.641207 0.076376 -0.833548 -0.433582 0.273499 
-0.370146 -0.118723 0.407542 -0.987482 0.106111 0.104990 
0.169624 0.242414 -0.644683 0.160068 -0.404384 -0.889852 
-0.348106 -0.090071 0.674181 -0.983392 0.113933 0.126711 
-0.375618 -0.166115 0.386166 -0.993665 0.020268 0.106541 
0.359730 -0.042205 0.370818 0.949251 0.293069 0.111519 
-0.131831 0.639460 -0.499191 -0.142528 0.387914 -0.909507 
0.293455 0.227840 -0.370269 0.811872 -0.508654 0.266298 
-0.327483 0.038175 0.355050 -0.883563 0.449605 0.127613 
-0.120969 -0.446224 -0.063502 0.758506 -0.076397 -0.605961 
0.122636 -0.517037 0.907938 -0.493867 -0.059260 0.829315 
0.086450 0.574016 -0.530239 0.075547 0.385496 -0.918906 
-0.149204 -0.715676 0.739278 0.455223 -0.804246 -0.347991 
-0.054238 -0.064482 -0.217673 -0.267723 -0.088497 -0.956597 
-0.170584 -0.375216 0.922122 0.027559 -0.035461 0.991486 
0.092104 -0.213512 0.957755 0.166302 -0.228094 0.958187 
0.253839 0.173259 -0.385932 0.640209 -0.719231 0.253728 
-0.181842 -0.618948 0.920218 0.139156 -0.232331 0.941165 
0.288840 0.387365 -0.556322 0.773884 0.412007 -0.455679 
0.317275 0.346766 -0.313725 0.974701 -0.052027 0.186481 
0.176663 0.777520 -0.366091 0.584223 0.776709 -0.209211 
0.377001 -0.106851 0.337644 0.985624 0.125407 0.102238 
-0.141437 -0.506857 0.423956 -0.338093 -0.936493 -0.035389 
-0.078468 -0.602693 0.814791 0.950118 -0.206917 0.115951 
0.338006 -0.284268 0.746980 0.990093 0.060415 0.120119 
-0.106264 -0.188319 -0.181172 -0.284451 -0.327484 -0.888873 
0.244230 -0.571075 0.921254 0.285066 -0.117573 0.931121 
0.147589 0.294299 -0.663267 0.111752 -0.084996 -0.983805 
0.057029 -0.370398 -0.032665 0.002136 -0.793271 -0.578808 
-0.318698 0.278117 -0.377216 -0.930030 -0.266372 0.199882 
0.197956 -0.493357 0.629455 -0.046830 -0.474202 -0.831371 
-0.110305 0.316203 0.169780 -0.202259 0.975634 -0.001049 
0.298624 -0.347228 0.883497 0.670213 0.118064 0.712083 
0.358554 -0.221060 -0.033411 0.908248 0.147799 -0.375441 
-0.209276 -0.719501 0.094340 0.134047 -0.889316 0.361307 
0.214746 0.603863 -0.107877 0.457138 0.366569 0.801385 
-0.328876 -0.641622 -0.059098 -0.699203 -0.465703 -0.523039 
0.086737 -0.495795 0.878596 -0.780949 -0.082843 0.568443 
-0.117109 0.136641 -0.288100 -0.312264 -0.934615 0.125645 
0.265438 0.173854 0.276267 0.849330 0.497684 0.172995 
-0.130376 -0.501477 -0.075381 0.728467 -0.058303 -0.682095 
0.126797 0.312941 0.209370 0.226559 0.971017 0.052671 
-0.228595 0.191283 0.041248 -0.747553 0.529511 -0.398368 
0.158244 0.287490 0.299564 0.408959 0.858204 0.299421 
0.342222 -0.286392 0.675397 0.994631 -0.047497 0.072093 
-0.306654 -0.520156 -0.116260 -0.344480 -0.057260 -0.931420 
-0.299899 0.577231 -0.218281 -0.428897 -0.872587 -0.185083 
0.134142 -0.512614 0.127133 -0.815313 -0.059434 0.547096 
0.251211 -0.346266 0.909257 0.351378 0.072899 0.921503 
0.284258 0.467300 -0.214357 0.962119 0.168590 0.186266 
0.222426 -0.133170 0.917118 0.563508 0.002650 0.822344 
-0.011979 -0.407652 0.007908 -0.075531 -0.851470 -0.507998 
-0.303371 0.092523 0.072920 -0.855144 0.450789 -0.250233 
0.026200 0.248867 0.440076 0.038853 0.940005 0.337109 
-0.088401 -0.466700 0.655576 0.243564 -0.906037 -0.072688 
0.187250 -0.711402 0.098399 -0.330346 -0.813750 0.408562 
-0.318647 0.067026 0.312250 -0.876314 0.462896 0.131571 
0.137847 0.773666 -0.415912 0.275389 0.749506 -0.595167 
-0.343208 -0.307272 -0.083638 -0.704870 0.091932 -0.697717 
0.199021 0.863950 -0.233253 0.547056 -0.082640 0.826411 
-0.069294 -0.484986 0.851068 0.933403 -0.124444 0.328003 
-0.350808 -0.141820 0.669959 -0.991223 -0.011177 0.130859 
0.107207 0.172073 0.798640 0.322987 0.848460 0.416493 
0.335282 -0.377205 0.311319 0.712696 -0.686034 -0.009558 
-0.282081 -0.694021 0.771469 -0.713065 -0.655822 -0.117226 
0.241269 -0.648472 0.167678 0.067816 -0.416724 0.875131 
-0.188765 -0.612026 -0.103140 0.386581 -0.229473 -0.885437 
0.081600 0.807626 -0.202781 0.172943 0.855968 0.479692 
-0.109152 0.819647 -0.311953 0.443206 0.633205 -0.594025 
-0.330530 0.284111 -0.439594 -0.980174 -0.136369 0.066395 
-0.024012 0.318940 0.229998 -0.013357 0.990832 0.130236 
-0.285356 0.521749 -0.352162 -0.976441 0.204722 -0.048552 
-0.382579 -0.384194 0.051844 -0.987729 -0.000619 0.062777 
0.343742 0.669886 -0.144520 0.048778 0.161787 0.960771 
0.367316 -0.103142 0.417044 0.984133 0.139031 0.099895 
0.218303 0.219495 0.335755 0.734070 0.607161 0.303600 
-0.171626 -0.364683 -0.103804 0.289257 -0.138207 -0.938698 
0.149419 0.093744 0.876235 0.430731 0.621010 0.651123 
-0.158913 0.158945 -0.267803 -0.463936 -0.843198 0.218487 
0.074638 -0.542905 0.849037 -0.938048 -0.124677 0.313302 
0.336399 0.040103 0.281848 0.897438 0.427227 0.104728 
-0.217661 -0.715054 0.854439 -0.194410 -0.831398 0.455624 
-0.333900 -0.172597 0.750396 -0.966323 -0.023615 0.249139 
-0.112474 -0.372886 -0.069198 0.558437 -0.333540 -0.715186 
0.371029 -0.288984 -0.027725 0.942646 0.107287 -0.306317 
0.163405 -0.622934 0.916641 -0.277659 -0.246314 0.915026 
0.298059 -0.585108 -0.111011 0.361157 -0.218529 -0.901544 
-0.361191 -0.616690 -0.013734 -0.897415 -0.348447 -0.201277 
0.127252 -0.225802 -0.156415 0.245287 -0.441369 -0.857226 
0.074374 -0.490961 0.298752 0.179359 -0.913098 -0.362850 
0.198771 0.875823 -0.325265 0.466413 0.032872 -0.855784 
0.270293 -0.049087 0.865937 0.747365 0.226480 0.619050 
0.215129 0.495031 -0.538892 0.408402 0.448731 -0.765919 
0.279269 -0.663670 0.714239 0.707811 -0.481756 -0.493859 
-0.242796 -0.425828 0.309781 -0.331847 -0.941253 -0.046254 
-0.244839 -0.338241 -0.116924 -0.025756 -0.023285 -0.994614 
0.157997 0.528268 -0.541465 0.186515 0.429932 -0.879470 
-0.224551 -0.440634 0.556439 -0.220114 -0.941073 -0.173633 
-0.149436 -0.554400 0.147765 0.706745 -0.090348 0.690939 
0.104384 -0.447040 0.195529 0.141865 -0.971613 -0.182757 
0.173587 0.909753 -0.225139 0.129150 0.216469 0.960443 
0.361523 -0.130855 0.527348 0.995080 0.058089 0.064629 
0.270361 -0.278220 -0.114467 0.261001 -0.018985 -0.948299 
0.166733 -0.487323 0.493035 0.465246 -0.850440 0.233504 
0.170435 0.122430 -0.495860 0.215022 -0.944427 -0.218174 
0.378444 -0.273903 0.021149 0.982901 0.078360 -0.134438 
-0.149527 0.824856 -0.219270 -0.138960 0.087432 0.977686 
-0.216069 0.187066 -0.282345 -0.627804 -0.715230 0.301421 
-0.081500 -0.521138 0.402642 -0.197057 -0.967821 -0.117741 
-0.098950 0.664945 -0.070895 -0.512371 0.583999 0.629521 
-0.204011 0.935498 -0.248917 -0.563758 0.548543 0.555579 
-0.370046 -0.190735 0.435901 -0.994648 -0.010326 0.101409 
-0.126971 0.763401 -0.429617 -0.229074 0.679368 -0.682218 
-0.287227 0.144652 0.123660 -0.871301 0.467067 -0.142488 
0.379813 -0.276741 0.236935 0.988389 -0.148433 0.023449 
0.317731 -0.414288 0.645086 0.873263 -0.352913 -0.319139 
-0.314332 0.094606 0.136414 -0.892486 0.439664 -0.093757 
0.346843 -0.014272 0.056655 0.913683 0.305061 -0.254626 
-0.452374 0.718871 -0.246665 -0.839651 0.138065 -0.439033 
-0.341454 -0.371588 0.438784 -0.846953 -0.508807 0.050399 
0.347258 -0.225948 0.655041 0.992251 -0.051312 0.112900 
-0.169583 -0.617410 0.154102 0.554410 -0.219317 0.778405 
0.316827 -0.178947 0.803806 0.921966 0.011073 0.379434 
-0.309643 -0.069463 -0.061744 -0.795552 0.196632 -0.571817 
-0.379821 -0.217275 0.336897 -0.995189 -0.046850 0.083784 
-0.299956 -0.131637 -0.088440 -0.695055 0.135651 -0.689155 
-0.261471 0.105390 0.518780 -0.759800 0.646399 0.063373 
-0.369492 0.616153 -0.257355 -0.445676 -0.784076 -0.407243 
-0.071096 0.802548 -0.191087 -0.208537 0.824168 0.518334 
-0.124450 0.427039 0.032912 -0.375934 -0.128455 0.909409 
0.207042 0.187776 -0.000132 0.769857 0.466786 -0.427321 
-0.060058 -0.211432 -0.183528 -0.151230 -0.430285 -0.883724 
-0.244355 0.438535 -0.072742 -0.855503 0.023396 0.501205 
0.143737 -0.461647 0.154642 -0.556330 -0.644123 0.403876 
-0.119729 0.376858 0.022289 -0.385820 -0.233921 0.886112 
0.229259 0.234236 0.112241 0.761108 0.599943 -0.239306 
-0.167586 -0.703052 -0.023086 0.501284 -0.738039 -0.378082 
-0.330414 0.040438 0.078602 -0.889277 0.402932 -0.209560 
-0.067775 -0.445126 0.155954 -0.101493 -0.982206 -0.154458 
-0.153552 0.132076 -0.144360 -0.900367 -0.115428 -0.388745 
-0.069123 -0.505199 0.768232 0.963031 -0.154674 -0.135157 
-0.304421 -0.405563 0.382799 -0.498183 -0.860150 -0.051254 
-0.033941 0.526141 -0.553477 -0.024471 0.438326 -0.897270 
-0.306627 0.043998 0.516986 -0.848653 0.525081 0.045255 
-0.317537 0.041151 0.415463 -0.868365 0.482703 0.110197 
-0.331164 -0.326275 0.819869 -0.948802 0.126857 0.278578 
-0.381584 -0.157403 0.328886 -0.994792 0.025802 0.091718 
0.073134 0.324010 0.077200 0.202832 0.964476 0.124439 
0.232474 -0.732446 0.023748 0.053110 -0.988981 -0.064266 
0.110691 -0.446135 0.907204 -0.475606 -0.094027 0.848488 
-0.013991 -0.509344 0.542340 -0.035071 -0.942875 0.325175 
0.265753 0.394479 -0.126937 0.892295 -0.143037 0.404445 
0.179369 -0.478523 -0.107162 -0.388035 -0.018046 -0.918454 
-0.184452 0.205426 -0.173600 -0.794693 -0.535402 0.227896 
-0.108546 -0.520686 0.676105 0.663262 -0.312459 -0.618079 
0.084795 0.171064 -0.601417 0.044776 -0.728337 -0.676584 
-0.369820 -0.139075 0.067357 -0.974198 0.094371 -0.193924 
0.326804 0.255496 -0.464764 0.954383 -0.270277 0.029557 
-0.037993 0.218982 0.703513 -0.115449 0.979184 0.160493 
0.362096 -0.415880 -0.070658 0.797748 0.034876 -0.560095 
0.315186 0.070917 0.321261 0.872513 0.468418 0.137496 
-0.015452 0.228985 0.532419 -0.038862 0.991508 0.100996 
0.033499 0.129198 0.889776 0.107429 0.722327 0.683060 
-0.309609 0.261575 -0.573752 -0.854078 -0.206482 -0.459407 
-0.194493 0.437168 -0.588568 -0.262975 0.570578 -0.775822 
-0.115480 0.188593 0.748316 -0.353491 0.890106 0.279394 
0.187493 0.379118 -0.633574 0.223637 0.504157 -0.831606 
-0.272267 0.226767 -0.599296 -0.558701 -0.485477 -0.659408 
0.330328 -0.385470 0.844083 0.907048 0.081973 0.373658 
-0.321442 -0.391234 0.514169 -0.742585 -0.661903 0.047300 
0.114487 -0.558452 -0.040031 -0.882215 -0.097814 -0.416920 
0.373654 -0.286854 0.332370 0.983270 -0.164095 0.063183 
-0.005130 0.653369 -0.502245 -0.006025 0.385566 -0.922097 
-0.244173 -0.394164 -0.119426 0.023500 0.007554 -0.997201 
0.007537 0.582045 0.025955 0.030653 0.445928 0.888918 
